-2.778098918497562408e-02 -1.151683926582336426e-01 -3.764647841453552246e-01
-1.967414468526840210e-02 -1.091810166835784912e-01 -7.792302966117858887e-01
-6.924015283584594727e-02 -3.787944093346595764e-02 -7.725354433059692383e-01
-2.936416268348693848e-01 -1.078862324357032776e-01 -2.757188677787780762e-01
-9.740277379751205444e-02 -3.482881188392639160e-02 -1.693481951951980591e-01
-1.252822428941726685e-01 -4.015016928315162659e-02 -3.070201575756072998e-01
-9.058766812086105347e-02 -7.914304733276367188e-03 -3.577484562993049622e-02
4.262177944183349609e-01 -1.439263299107551575e-02 7.672987133264541626e-02
7.512158155441284180e-02 6.458783894777297974e-02 -7.934806495904922485e-02
1.361729502677917480e-01 -1.380970329046249390e-01 -9.062663652002811432e-03
1.044793799519538879e-02 -1.009016260504722595e-01 2.893287241458892822e-01
-8.954820781946182251e-02 1.227126270532608032e-02 -5.525076985359191895e-01
2.232721820473670959e-02 9.539629518985748291e-02 -2.349463701248168945e-01
-4.140236228704452515e-02 -1.576128788292407990e-02 -8.739022612571716309e-01
6.783651560544967651e-02 7.219858467578887939e-02 3.896186053752899170e-01
3.729199171066284180e-01 -2.529788389801979065e-02 -1.410299837589263916e-01
-7.954890839755535126e-03 9.616645425558090210e-02 3.471206128597259521e-01
4.804887343198060989e-03 1.490864604711532593e-01 8.311303853988647461e-01
3.674842789769172668e-02 1.537370588630437851e-02 5.104485154151916504e-01
-1.834735572338104248e-01 -2.737927995622158051e-02 -6.606580317020416260e-02
7.985702753067016602e-01 1.901964843273162842e-02 2.153461873531341553e-01
-2.116951644420623779e-01 4.629198089241981506e-02 7.840381860733032227e-01
7.725523412227630615e-02 -1.139838472008705139e-01 -1.886935159564018250e-02
-8.956013619899749756e-02 -1.605256274342536926e-02 1.632406562566757202e-01
-6.799443960189819336e-01 7.744292262941598892e-03 1.437585651874542236e-01
-8.859603106975555420e-02 -2.368329279124736786e-02 -3.545132577419281006e-01
-4.891239106655120850e-01 -1.253684703260660172e-02 4.183658864349126816e-03
6.533793639391660690e-03 9.756268560886383057e-02 -4.587883651256561279e-01
6.445432901382446289e-01 -5.737073253840208054e-03 1.127365082502365112e-01
-1.154756080359220505e-02 9.565999358892440796e-02 -3.721886575222015381e-01
3.284205868840217590e-02 -1.165850535035133362e-01 -1.373776197433471680e-01
9.752012044191360474e-02 1.927437633275985718e-02 1.953982561826705933e-01
-7.144168019294738770e-02 4.240676015615463257e-02 5.311458706855773926e-01
-1.202839538455009460e-01 -2.801434695720672607e-02 -2.435708940029144287e-01
8.622334897518157959e-02 -2.394292131066322327e-02 5.065197348594665527e-01
-3.386928699910640717e-03 5.529316142201423645e-02 -8.279961347579956055e-01
2.806164324283599854e-01 -1.193670630455017090e-01 -3.527234196662902832e-01
-3.130276501178741455e-02 8.972889184951782227e-02 -3.087486140429973602e-02
1.808759421110153198e-01 -5.336163938045501709e-02 -1.761209070682525635e-01
2.779121696949005127e-01 -1.261942684650421143e-01 -1.739359349012374878e-01
6.388765573501586914e-02 7.522949576377868652e-02 -1.921521127223968506e-01
5.567793548107147217e-02 -8.566831797361373901e-02 1.767720431089401245e-01
-5.532906651496887207e-01 6.197807844728231430e-03 4.222095757722854614e-02
6.604404002428054810e-02 7.350539416074752808e-02 -3.629425764083862305e-01
4.255010932683944702e-02 -2.411455847322940826e-02 -8.923864364624023438e-01
-1.204661577939987183e-01 -1.402949839830398560e-01 2.160829119384288788e-02
1.892242431640625000e-01 -1.625063270330429077e-01 -3.626727312803268433e-02
9.684469550848007202e-02 -2.799801900982856750e-02 -3.750189244747161865e-01
-2.003750056028366089e-01 -4.301506653428077698e-02 -9.403333999216556549e-03
-8.695983290672302246e-01 2.661134116351604462e-02 2.618418931961059570e-01
-2.760870615020394325e-03 2.388867884874343872e-01 7.394390106201171875e-01
-6.455145031213760376e-02 6.691409647464752197e-02 2.527323067188262939e-01
8.599902689456939697e-02 4.981497675180435181e-02 8.604052662849426270e-02
2.850678265094757080e-01 -2.278152108192443848e-02 -5.987414042465388775e-04
1.000021472573280334e-01 -3.505703294649720192e-03 -2.867663800716400146e-01
6.497190594673156738e-01 1.261457987129688263e-02 4.089739546179771423e-02
-7.298552244901657104e-02 5.272650718688964844e-02 4.685582518577575684e-01
1.710875891149044037e-02 9.611212462186813354e-02 -5.730848908424377441e-01
7.916925102472305298e-02 -6.296747177839279175e-02 -4.404326379299163818e-01
5.117539316415786743e-02 4.698615893721580505e-02 -8.021992444992065430e-01
-7.277172058820724487e-02 -1.111536175012588501e-01 -1.112810987979173660e-02
-6.546509265899658203e-02 6.567326188087463379e-02 -2.463441789150238037e-01
6.012530252337455750e-02 7.823762297630310059e-02 1.363465040922164917e-01
9.920966625213623047e-02 -9.770728647708892822e-03 1.761815883219242096e-02
5.402376055717468262e-01 -5.239279009401798248e-03 1.029257774353027344e-01
2.650470472872257233e-02 -8.880510181188583374e-02 4.685142338275909424e-01
9.940962493419647217e-02 -8.193675428628921509e-03 -1.108086109161376953e-01
-4.917621240019798279e-02 -1.173970997333526611e-01 -1.430457830429077148e-01
1.288892179727554321e-01 2.705821208655834198e-02 7.767813205718994141e-01
-3.907575085759162903e-02 -8.464479446411132812e-02 4.323224723339080811e-01
8.699312061071395874e-02 4.849083349108695984e-02 3.224257826805114746e-01
-3.533578217029571533e-01 -8.354190737009048462e-02 -2.998338043689727783e-01
6.365445256233215332e-02 -7.106076925992965698e-02 -2.097084373235702515e-01
3.408579528331756592e-01 -5.267207697033882141e-02 -3.549730777740478516e-01
1.437978893518447876e-01 -5.409925058484077454e-02 -1.417239569127559662e-02
-9.215679764747619629e-02 -9.604755043983459473e-02 -7.378894090652465820e-02
4.335595369338989258e-01 -1.043360028415918350e-02 -1.075591444969177246e-01
5.572678893804550171e-02 -4.528445750474929810e-02 -5.379486829042434692e-02
1.155662909150123596e-02 4.952142760157585144e-02 8.462408781051635742e-01
3.208893910050392151e-02 -1.185032650828361511e-01 -2.642585635185241699e-01
1.285557299852371216e-01 -5.589547380805015564e-02 -3.100163936614990234e-01
-4.141181111335754395e-01 -2.061842754483222961e-02 -1.042838543653488159e-01
-7.391095757484436035e-01 1.288226805627346039e-02 1.494744271039962769e-01
-8.509780466556549072e-02 3.139138221740722656e-02 -3.176823556423187256e-01
8.672709017992019653e-02 -4.922322183847427368e-02 4.031807184219360352e-01
-4.687225073575973511e-02 -6.030739471316337585e-02 -3.449106812477111816e-01
1.804637350142002106e-02 -9.985945373773574829e-02 -4.822841286659240723e-01
-5.859361216425895691e-02 1.468184497207403183e-02 7.251535058021545410e-01
-3.186114132404327393e-01 -3.557281568646430969e-02 -1.459670513868331909e-01
5.797540023922920227e-02 -1.177645176649093628e-01 -3.487674593925476074e-01
4.768515750765800476e-02 -9.035671502351760864e-02 -5.932070016860961914e-01
-6.545747071504592896e-02 -3.736190870404243469e-02 -8.478455245494842529e-02
7.454805076122283936e-02 -6.924302130937576294e-02 2.802780866622924805e-01
-1.895137280225753784e-01 -2.220573462545871735e-02 -1.774297505617141724e-01
6.756290793418884277e-02 -3.244303166866302490e-02 5.972688794136047363e-01
-4.518968239426612854e-02 -8.697526901960372925e-02 -4.782501757144927979e-01
2.615863084793090820e-01 -8.054533600807189941e-02 -1.934189945459365845e-01
2.002553641796112061e-02 -1.955855265259742737e-02 8.014398813247680664e-01
-2.510065957903862000e-02 9.240507334470748901e-02 -5.138145685195922852e-01
4.019287824630737305e-01 -6.783500779420137405e-03 -3.263268992304801941e-02
2.989362776279449463e-01 -3.338645771145820618e-02 -3.119856119155883789e-01
7.073885202407836914e-02 -1.067427173256874084e-01 3.882612287998199463e-02
-9.039152413606643677e-02 -9.471806697547435760e-03 2.546193599700927734e-01
7.500501722097396851e-02 6.474614888429641724e-02 -5.357747077941894531e-01
2.902101725339889526e-02 6.543517112731933594e-02 7.164196968078613281e-01
2.563989162445068359e-02 -1.493455022573471069e-01 -7.414988875389099121e-01
1.650467328727245331e-02 9.621623158454895020e-02 4.058959782123565674e-01
2.059570699930191040e-01 -4.882650449872016907e-02 -2.369602918624877930e-01
5.260104313492774963e-02 8.425349742174148560e-02 -1.428153961896896362e-01
3.035148382186889648e-01 -4.990120604634284973e-02 -2.199154049158096313e-01
3.576987087726593018e-01 -7.146580517292022705e-02 -2.468781918287277222e-01
3.616435229778289795e-01 -1.143570244312286377e-01 -1.645206958055496216e-01
-3.747584670782089233e-02 -4.673436656594276428e-02 6.299842000007629395e-01
9.504196047782897949e-02 2.865779027342796326e-02 -5.688277482986450195e-01
2.554402947425842285e-01 -9.144128113985061646e-02 -3.144858777523040771e-01
8.655837178230285645e-02 4.905533045530319214e-02 2.350158095359802246e-01
5.659140273928642273e-02 -2.889451012015342712e-02 -2.934522032737731934e-01
-2.290933206677436829e-02 2.606553584337234497e-02 5.558107495307922363e-01
1.345333084464073181e-02 1.753946393728256226e-01 7.216547131538391113e-01
3.589756786823272705e-02 8.822511136531829834e-02 5.237277150154113770e-01
-2.518417537212371826e-01 -4.290736466646194458e-02 -2.942795157432556152e-01
9.884392470121383667e-02 3.960907051805406809e-04 4.247646033763885498e-01
-5.397618748247623444e-03 9.650357812643051147e-02 7.498579472303390503e-02
-3.229088485240936279e-01 -3.210175037384033203e-02 -3.091764450073242188e-01
-4.923408627510070801e-01 -2.090757898986339569e-02 1.351996213197708130e-01
6.669739633798599243e-02 4.883090034127235413e-02 6.157445907592773438e-01
-8.859972655773162842e-02 -2.365157753229141235e-02 8.323481678962707520e-02
3.126545548439025879e-01 -4.817708954215049744e-02 -3.431392461061477661e-02
-5.200925469398498535e-02 7.764622569084167480e-02 -3.390323221683502197e-01
6.587641686201095581e-02 -6.483329087495803833e-02 -7.622113823890686035e-01
-7.151339203119277954e-02 5.745896697044372559e-02 6.494809687137603760e-02
-2.874156832695007324e-01 -7.978925853967666626e-02 -1.328869462013244629e-01
9.796535968780517578e-02 -1.781618688255548477e-03 -6.770161390304565430e-01
3.144697248935699463e-01 -1.369321495294570923e-01 -2.510953545570373535e-01
-6.054729968309402466e-02 4.766817018389701843e-02 6.019034981727600098e-01
-6.964391469955444336e-02 -5.086417868733406067e-02 4.704587757587432861e-01
-6.688928604125976562e-02 6.373904645442962646e-02 -1.586857885122299194e-01
-6.479399204254150391e-01 3.623092314228415489e-03 9.634643793106079102e-02
9.374022483825683594e-02 -6.930523365736007690e-02 -1.644117832183837891e-01
-4.687225073575973511e-02 -6.814842671155929565e-02 -2.351841479539871216e-01
-1.666917204856872559e-01 -8.020629733800888062e-02 -5.404790118336677551e-02
1.050725057721138000e-01 -5.666484683752059937e-02 3.411820903420448303e-02
9.396815299987792969e-02 -1.088307276368141174e-01 -3.051645159721374512e-01
-3.031783401966094971e-01 -1.546873599290847778e-01 -2.827560901641845703e-01
1.946634054183959961e-01 -4.541334882378578186e-02 -1.639004424214363098e-02
2.832445316016674042e-02 -1.122722849249839783e-01 -7.828682661056518555e-01
4.917607903480529785e-01 9.335275972262024879e-04 -1.333853509277105331e-02
1.004330739378929138e-01 -7.040272653102874756e-02 -2.603820562362670898e-01
-4.696564748883247375e-02 -1.179662644863128662e-01 -1.910471022129058838e-01
-4.799440875649452209e-02 -1.185032650828361511e-01 -3.143648803234100342e-01
2.432039678096771240e-01 -4.352739825844764709e-02 -1.592875123023986816e-01
-3.077041804790496826e-01 -9.398507326841354370e-02 -3.191168010234832764e-01
3.448860645294189453e-01 -1.484905183315277100e-01 -2.856512665748596191e-01
9.001391530036926270e-01 2.946826443076133728e-02 2.672309577465057373e-01
9.662249684333801270e-02 -2.855679951608181000e-02 -4.908266961574554443e-01
-3.975593149662017822e-01 -5.742453970015048981e-03 -6.200722977519035339e-02
-4.282687604427337646e-02 -6.656240671873092651e-02 5.303416848182678223e-01
1.356276031583547592e-02 -7.172524929046630859e-02 -9.002751111984252930e-01
-8.630677312612533569e-02 2.730392105877399445e-02 4.161066710948944092e-01
-4.687225073575973511e-02 -5.554593726992607117e-02 3.380628302693367004e-02
3.907068166881799698e-03 1.080711334943771362e-01 5.511667132377624512e-01
4.533884823322296143e-01 -5.301303695887327194e-03 3.922855108976364136e-02
1.853020489215850830e-02 -1.151962280273437500e-01 -3.750920593738555908e-01
6.640119105577468872e-02 -2.946979552507400513e-02 -1.896394789218902588e-01
1.080085411667823792e-01 -2.831980213522911072e-02 -2.416692674160003662e-01
2.360072433948516846e-01 5.378707125782966614e-02 7.918248772621154785e-01
8.192869275808334351e-02 5.534296855330467224e-02 -4.023410081863403320e-01
2.161448821425437927e-03 -6.090553849935531616e-02 -7.521280646324157715e-01
-8.594980835914611816e-02 2.924804389476776123e-02 2.790971100330352783e-01
-8.731994777917861938e-02 2.580128051340579987e-02 -4.564465284347534180e-01
-1.672748476266860962e-01 -1.597312390804290771e-01 -2.734816819429397583e-02
9.509777277708053589e-02 -8.778617531061172485e-02 -3.807007372379302979e-01
-3.639475107192993164e-01 -1.181390061974525452e-01 -2.347263246774673462e-01
7.233303040266036987e-02 6.837502121925354004e-02 -1.205009967088699341e-02
-3.205798268318176270e-01 -2.506971545517444611e-02 5.555026233196258545e-02
4.892228636890649796e-03 -7.193334749899804592e-04 -9.036687612533569336e-01
3.782389685511589050e-02 -9.461230784654617310e-02 -5.487505793571472168e-01
-2.752885222434997559e-01 -1.699583232402801514e-02 -6.824326515197753906e-02
2.368660718202590942e-01 5.629147589206695557e-02 8.613125681877136230e-01
-3.976124152541160583e-02 6.024087965488433838e-02 -7.744452953338623047e-01
-1.262564063072204590e-01 -6.157951056957244873e-02 -1.399531215429306030e-01
-1.313990354537963867e-02 2.586819417774677277e-02 -8.654891848564147949e-01
-5.764297023415565491e-02 7.331930845975875854e-02 3.748045563697814941e-01
-6.468038191087543964e-04 2.157528996467590332e-01 8.113266229629516602e-01
-8.512687869369983673e-03 1.091491952538490295e-01 6.346412897109985352e-01
-2.648934721946716309e-01 -4.943621903657913208e-02 -2.166675925254821777e-01
-3.351370394229888916e-01 -1.360841691493988037e-01 -1.753798574209213257e-01
2.855742573738098145e-01 -1.515651866793632507e-02 -1.156516447663307190e-01
9.959494322538375854e-02 -6.727491039782762527e-03 -1.560393720865249634e-01
3.786400705575942993e-02 8.946870267391204834e-02 -6.253418922424316406e-01
-2.163329720497131348e-01 7.648504972457885742e-01 -3.428813815116882324e-01
-2.008464038372039795e-01 -4.769323393702507019e-02 -1.419254690408706665e-01
-4.637127518653869629e-01 -3.099964465945959091e-03 4.011774435639381409e-02
-3.057162761688232422e-01 -6.409107893705368042e-02 -2.813098728656768799e-01
-2.054490335285663605e-02 9.437085688114166260e-02 2.076350897550582886e-01
-2.769600972533226013e-02 9.128519147634506226e-02 2.887688875198364258e-01
-3.442496061325073242e-02 -9.855277091264724731e-02 1.111302375793457031e-01
-3.042604327201843262e-01 -5.589136853814125061e-02 -5.385302379727363586e-02
-6.918314099311828613e-02 6.062371656298637390e-02 -5.306916777044534683e-03
-2.843722403049468994e-01 -1.433766726404428482e-02 -1.269078403711318970e-01
1.973074376583099365e-01 -4.891720786690711975e-02 -1.166991218924522400e-01
-7.821670733392238617e-03 6.533125042915344238e-02 5.400548577308654785e-01
6.360165774822235107e-02 -7.715924829244613647e-02 -6.854544878005981445e-01
1.594064682722091675e-01 -2.559698931872844696e-02 -2.258287668228149414e-01
6.888931989669799805e-01 1.566272415220737457e-02 1.263471394777297974e-01
-1.454682052135467529e-01 -9.847643971443176270e-02 -1.727615296840667725e-02
2.565246224403381348e-01 -4.149745032191276550e-02 -3.035335242748260498e-01
-3.954596072435379028e-02 8.595062792301177979e-02 4.600274860858917236e-01
-1.043987274169921875e-02 -1.161982789635658264e-01 -1.223124861717224121e-01
-5.437592417001724243e-02 7.557914406061172485e-02 -6.032849550247192383e-01
-2.253274321556091309e-01 5.732380226254463196e-02 8.248804807662963867e-01
1.426443271338939667e-02 3.824020549654960632e-02 8.884742856025695801e-01
-5.450223572552204132e-03 1.500981003046035767e-01 6.840692758560180664e-01
-5.028225947171449661e-03 -4.213350266218185425e-02 7.186540961265563965e-01
-8.771611005067825317e-02 -2.090519294142723083e-02 4.107444584369659424e-01
-5.252727866172790527e-02 7.723199576139450073e-02 1.580311655998229980e-01
3.183379471302032471e-01 -6.776363402605056763e-02 -1.709373742341995239e-01
-8.088518679141998291e-02 3.629485517740249634e-02 -6.674846410751342773e-01
7.394774258136749268e-02 3.015167312696576118e-03 6.215250492095947266e-01
-1.333579304628074169e-03 3.079828917980194092e-01 8.261675834655761719e-01
5.572678893804550171e-02 -3.834227845072746277e-02 -3.472279906272888184e-01
-7.839857786893844604e-02 -3.390644490718841553e-02 -7.304056286811828613e-01
-7.320438046008348465e-03 -1.170865595340728760e-01 -2.818427085876464844e-01
-8.701285719871520996e-02 2.668209932744503021e-02 3.301345705986022949e-01
-2.602356076240539551e-01 -1.348519325256347656e-01 -2.775301933288574219e-01
7.793686538934707642e-02 6.076434999704360962e-02 -2.930581569671630859e-01
-1.230895146727561951e-01 -1.312252134084701538e-01 -5.744655057787895203e-02
-7.192921638488769531e-02 -6.077207624912261963e-02 1.499060094356536865e-01
-4.349233210086822510e-02 -8.833254873752593994e-02 -5.761172175407409668e-01
-1.691663265228271484e-01 4.772429168224334717e-02 8.142351508140563965e-01
3.311538398265838623e-01 6.861456483602523804e-02 8.933330774307250977e-01
9.798518568277359009e-02 -1.945651136338710785e-02 -5.589228868484497070e-01
-9.083654731512069702e-02 -5.945220123976469040e-03 -2.117325961589813232e-01
3.449750132858753204e-03 -9.979297220706939697e-02 -6.880044341087341309e-01
-1.889233589172363281e-01 -2.293913811445236206e-02 -2.212345749139785767e-01
2.417233772575855255e-02 5.250506475567817688e-02 8.056918978691101074e-01
-2.860990352928638458e-02 -6.680240482091903687e-02 5.704373717308044434e-01
6.490918993949890137e-02 -6.090206652879714966e-02 5.035381913185119629e-01
-2.658121660351753235e-02 9.030705317854881287e-03 6.714097261428833008e-01
9.205102175474166870e-02 3.438906744122505188e-02 7.570270299911499023e-01
-7.193865627050399780e-02 -6.075878813862800598e-02 2.823445796966552734e-01
1.356542110443115234e-01 -1.716296821832656860e-01 1.700942590832710266e-02
-7.060160040855407715e-01 1.118956785649061203e-02 1.771018803119659424e-01
5.446807667613029480e-02 -8.402425795793533325e-02 3.918145298957824707e-01
-9.093366563320159912e-02 -2.020213752985000610e-02 -2.794667482376098633e-01
3.770994842052459717e-01 -1.083613112568855286e-01 -3.073864579200744629e-01
-3.160585463047027588e-02 8.959810435771942139e-02 -2.512544393539428711e-01
-4.490824043750762939e-01 -1.955428393557667732e-03 -1.641900464892387390e-02
8.903945796191692352e-03 3.512869775295257568e-01 8.653738498687744141e-01
1.811896078288555145e-02 6.556213647127151489e-02 6.699613928794860840e-01
3.649912402033805847e-02 8.890447206795215607e-03 6.427366733551025391e-01
8.244382590055465698e-02 -5.785967037081718445e-02 3.508988618850708008e-01
-1.755217462778091431e-02 9.483633935451507568e-02 -5.993535518646240234e-01
9.342979639768600464e-02 3.270862624049186707e-02 -1.067638024687767029e-01
3.172906860709190369e-02 9.336668998003005981e-02 4.544931277632713318e-02
-6.046112254261970520e-02 -7.429755479097366333e-02 3.393179476261138916e-01
5.769740939140319824e-01 -4.647032357752323151e-03 4.284526780247688293e-02
-1.058650761842727661e-01 -8.287102729082107544e-02 -1.690699905157089233e-01
-2.577013075351715088e-01 -2.531649917364120483e-02 1.568791805766522884e-03
6.767928004264831543e-01 1.100422535091638565e-02 1.664034724235534668e-01
-1.718758940696716309e-01 -1.297877281904220581e-01 1.716640777885913849e-02
3.236154615879058838e-01 -5.329091846942901611e-02 -1.310471743345260620e-01
9.577938169240951538e-02 -8.457615971565246582e-02 3.361302195116877556e-03
-4.837721884250640869e-01 4.589429008774459362e-04 -5.235966295003890991e-02
2.607860136777162552e-03 -8.371885120868682861e-02 -8.623726367950439453e-01
-2.554055489599704742e-02 -3.413218073546886444e-03 8.125438690185546875e-01
2.261959016323089600e-03 2.309637218713760376e-01 6.993467807769775391e-01
-1.397795379161834717e-01 3.809130191802978516e-02 7.144981026649475098e-01
-7.345003541558980942e-04 9.714322537183761597e-02 -1.278501898050308228e-01
-1.123203933238983154e-01 3.071826323866844177e-02 8.477571606636047363e-01
-7.635580748319625854e-02 -5.476075410842895508e-02 -4.478715360164642334e-01
-4.875503107905387878e-02 -8.412426710128784180e-02 2.188374847173690796e-01
6.642978638410568237e-02 6.898685544729232788e-02 5.044430494308471680e-01
-1.223098710179328918e-01 -3.288364410400390625e-02 -9.056981652975082397e-02
1.437318176031112671e-01 -6.046545505523681641e-02 -1.606598347425460815e-01
3.580213785171508789e-01 -8.960355818271636963e-02 -3.504247665405273438e-01
-4.496820867061614990e-01 -9.978104382753372192e-03 9.025502204895019531e-02
-6.919880211353302002e-02 6.060244515538215637e-02 -2.865540385246276855e-01
-2.149443477392196655e-01 -4.633957520127296448e-02 -1.978892236948013306e-01
1.763096749782562256e-01 -1.320693194866180420e-01 -5.980719253420829773e-02
-3.615157008171081543e-01 -1.160697788000106812e-01 -3.226960897445678711e-01
1.041419059038162231e-01 -6.483581662178039551e-02 -8.710499852895736694e-02
2.401044666767120361e-01 -4.184455797076225281e-02 -6.654894351959228516e-02
1.465106904506683350e-01 -3.209001198410987854e-02 -7.796560227870941162e-02
-3.714411854743957520e-01 -7.761680986732244492e-03 -9.868232905864715576e-02
3.154749572277069092e-01 -9.511843323707580566e-02 -3.152282238006591797e-01
1.923896372318267822e-01 -2.292274497449398041e-02 -1.522323787212371826e-01
-3.310293853282928467e-01 -1.055133156478404999e-02 -1.168798729777336121e-01
-6.174086332321166992e-01 1.137897837907075882e-02 7.127963751554489136e-02
5.206915736198425293e-01 4.827145021408796310e-04 6.825080513954162598e-02
-8.044497370719909668e-01 2.457666955888271332e-02 1.895474344491958618e-01
3.053040942177176476e-03 -6.225237622857093811e-02 -7.922992110252380371e-01
8.695761114358901978e-02 4.851311072707176208e-02 1.328114867210388184e-01
4.244003072381019592e-02 -6.883862428367137909e-03 7.705789208412170410e-01
2.386092394590377808e-02 9.518592059612274170e-02 3.047541379928588867e-01
-2.608608305454254150e-01 -8.469063043594360352e-02 -2.899844646453857422e-01
-8.041687309741973877e-02 4.316376522183418274e-02 -5.870217680931091309e-01
7.749542593955993652e-02 3.996331617236137390e-02 -7.397811412811279297e-01
-6.428068876266479492e-02 2.870501205325126648e-02 -7.772505283355712891e-01
-1.413133461028337479e-02 -8.672470599412918091e-02 -8.227092027664184570e-01
-8.844192326068878174e-02 2.102804183959960938e-02 -4.964373111724853516e-01
-1.328559219837188721e-01 -1.693072915077209473e-01 -2.650182927027344704e-03
-2.325981482863426208e-02 -1.119256094098091125e-01 4.786059632897377014e-02
-2.260892987251281738e-01 -1.925978809595108032e-02 -1.534866988658905029e-01
-7.076720893383026123e-02 -6.234849244356155396e-02 6.479451805353164673e-02
7.509526610374450684e-02 -1.181580051779747009e-01 -2.158086448907852173e-01
3.506807684898376465e-01 -4.169935733079910278e-02 -2.216901630163192749e-01
-2.615395486354827881e-01 -1.323873847723007202e-01 -2.345424294471740723e-01
1.349189877510070801e-02 -9.952700138092041016e-02 3.568678796291351318e-01
-9.032865613698959351e-02 6.100001744925975800e-03 5.452083051204681396e-02
-4.986256733536720276e-02 -3.079874254763126373e-02 -1.630345880985260010e-01
-4.555124789476394653e-02 8.281031996011734009e-02 -1.990778744220733643e-01
3.131135106086730957e-01 -7.065204530954360962e-02 -9.182457625865936279e-02
-6.227997690439224243e-02 -9.392977505922317505e-02 -4.315523505210876465e-01
3.855964913964271545e-02 2.683190070092678070e-02 5.597928166389465332e-01
-1.265341937541961670e-01 -6.321264803409576416e-02 -2.268597781658172607e-01
-4.989327490329742432e-02 -8.232584595680236816e-02 -6.647415757179260254e-01
-1.678994297981262207e-01 -5.460677668452262878e-02 -2.315498143434524536e-01
-3.512634038925170898e-01 -6.031600758433341980e-02 -1.795479357242584229e-01
-1.356564164161682129e-01 4.356641322374343872e-02 7.611515522003173828e-01
-9.023860841989517212e-02 -1.067296229302883148e-02 -3.914943933486938477e-01
-8.035837858915328979e-02 -1.139446869492530823e-01 -2.442444562911987305e-01
2.875309064984321594e-02 9.451486170291900635e-02 1.532279253005981445e-01
-5.155565142631530762e-01 1.998300431296229362e-03 5.183921009302139282e-02
3.634234368801116943e-01 -2.659098245203495026e-02 -5.870974436402320862e-02
-1.114770099520683289e-01 -5.654982849955558777e-02 8.348659612238407135e-03
7.753425836563110352e-02 -7.824236899614334106e-02 6.467287242412567139e-02
8.756604194641113281e-01 2.854649722576141357e-02 2.183692008256912231e-01
-4.529977589845657349e-02 7.607880979776382446e-02 5.380423069000244141e-01
-1.648401468992233276e-01 -5.251990258693695068e-02 -8.928825706243515015e-02
-9.110757708549499512e-02 -7.049789279699325562e-02 -3.027362823486328125e-01
-6.123678758740425110e-02 -2.612898685038089752e-02 6.008917093276977539e-01
1.205294113606214523e-02 -1.006811857223510742e-01 2.027841955423355103e-01
-7.479780912399291992e-02 5.299832299351692200e-02 -4.156483709812164307e-01
-3.382500708103179932e-01 -3.512053564190864563e-02 -2.694654464721679688e-01
1.725272387266159058e-01 -1.326771378517150879e-01 6.415163632482290268e-03
-5.489474907517433167e-02 -7.074274867773056030e-02 -1.973726153373718262e-01
-6.650765985250473022e-02 6.425733119249343872e-02 -5.506396889686584473e-01
3.067815601825714111e-01 -4.460975527763366699e-02 3.581238538026809692e-02
6.195447593927383423e-02 -6.710095703601837158e-02 -9.983899444341659546e-02
-8.319754898548126221e-02 -5.231414362788200378e-02 -3.928512036800384521e-01
2.984303236007690430e-02 -1.144486293196678162e-01 -4.119703769683837891e-01
6.630875915288925171e-02 -7.210365682840347290e-02 -2.959728538990020752e-01
-8.715596050024032593e-02 -3.008834458887577057e-02 1.211970597505569458e-01
-6.887992843985557556e-03 -1.001749858260154724e-01 2.513237893581390381e-01
-4.151213914155960083e-03 -9.706655889749526978e-02 -7.279417514801025391e-01
4.214919731020927429e-02 -1.179570108652114868e-01 -1.906865388154983521e-01
-8.202543109655380249e-02 -3.670432418584823608e-02 -6.893755793571472168e-01
1.390445530414581299e-01 -1.287635415792465210e-01 -4.602795466780662537e-02
9.891097992658615112e-02 8.258075453341007233e-03 -3.869151771068572998e-01
4.890118837356567383e-01 -9.722626768052577972e-03 -7.021670043468475342e-02
-2.737669041380286217e-03 2.470681667327880859e-01 7.816323041915893555e-01
-8.296028524637222290e-02 7.165201473981142044e-03 4.994802474975585938e-01
-7.739434242248535156e-01 1.926298625767230988e-02 2.177901118993759155e-01
8.599877357482910156e-02 -5.369414389133453369e-02 1.397097110748291016e-01
-7.843403518199920654e-02 -3.257311880588531494e-02 -1.365463435649871826e-01
-6.573732197284698486e-02 -3.423160687088966370e-02 5.571324825286865234e-01
-3.302553594112396240e-01 -7.157979160547256470e-02 -1.448639333248138428e-01
-3.654443100094795227e-02 -5.326960980892181396e-02 -8.750469088554382324e-01
-6.311642378568649292e-02 4.658422619104385376e-02 -7.425909042358398438e-01
-2.821141779422760010e-01 -1.353174149990081787e-01 -1.663682013750076294e-01
5.475410819053649902e-02 8.253205567598342896e-02 -5.300985276699066162e-02
-6.350206732749938965e-01 1.022993214428424835e-02 1.312434673309326172e-01
9.853145480155944824e-02 -1.513238344341516495e-02 2.222906202077865601e-01
-6.883096694946289062e-02 -6.497883051633834839e-02 2.449514120817184448e-01
-7.676903903484344482e-02 5.032118037343025208e-02 1.474074274301528931e-01
3.076094985008239746e-01 6.413780897855758667e-02 8.568143844604492188e-01
-2.931464314460754395e-01 6.678834557533264160e-02 8.988328576087951660e-01
2.804058790206909180e-02 -9.848843514919281006e-02 1.545817255973815918e-01
-4.557297751307487488e-02 7.646927237510681152e-02 -6.837527751922607422e-01
1.009614951908588409e-02 8.761683106422424316e-02 7.670143842697143555e-01
-8.082897961139678955e-02 4.250678792595863342e-02 3.721911907196044922e-01
3.533799946308135986e-01 -9.594892151653766632e-03 -1.058137789368629456e-01
1.491025537252426147e-01 -6.044422462582588196e-02 -2.494433224201202393e-01
-3.895138204097747803e-01 -2.139805257320404053e-02 -1.196960359811782837e-02
2.381363362073898315e-01 -2.497898600995540619e-02 -3.315614163875579834e-02
-4.526833444833755493e-02 -8.691237866878509521e-02 -5.156878232955932617e-01
-1.986406743526458740e-02 -1.147199273109436035e-01 5.385873839259147644e-03
-7.506810128688812256e-02 5.263125896453857422e-02 -1.239591091871261597e-01
7.843838632106781006e-02 -3.405169397592544556e-02 -7.789306044578552246e-01
6.272021681070327759e-02 7.195796817541122437e-02 -6.657584309577941895e-01
5.378642119467258453e-03 2.656461894512176514e-01 8.724468946456909180e-01
-2.931828200817108154e-01 -5.534789711236953735e-02 -1.678244471549987793e-01
6.704148370772600174e-03 9.754042327404022217e-02 4.647777676582336426e-01
9.275159239768981934e-02 -3.869473934173583984e-02 -6.252832412719726562e-01
6.901758164167404175e-02 7.096862047910690308e-02 4.365723133087158203e-01
4.756752401590347290e-02 6.290054321289062500e-02 -7.688654065132141113e-01
9.346286058425903320e-01 3.613224253058433533e-02 2.553233504295349121e-01
-1.364789009094238281e-01 -5.664872750639915466e-02 -6.369415670633316040e-02
5.915344506502151489e-02 -1.249323040246963501e-02 6.628039479255676270e-01
2.608849108219146729e-01 -4.029965773224830627e-02 -2.121181935071945190e-01
-5.283086374402046204e-02 -1.130768284201622009e-02 6.550727486610412598e-01
-8.415173888206481934e-01 2.673975937068462372e-02 1.690884977579116821e-01
4.033048450946807861e-02 2.529123052954673767e-02 7.161629199981689453e-01
-5.349278450012207031e-01 5.027562379837036133e-03 1.016773469746112823e-02
7.700653672218322754e-01 1.476012170314788818e-02 1.199205219745635986e-01
9.938299655914306641e-03 1.322904080152511597e-01 7.755660414695739746e-01
9.170196205377578735e-02 3.705647960305213928e-02 -1.061698328703641891e-02
7.549353688955307007e-02 -1.158070489764213562e-01 -5.563197284936904907e-02
-8.618261665105819702e-02 2.866299077868461609e-02 -3.638014197349548340e-02
8.089125901460647583e-02 5.675193667411804199e-02 1.814186125993728638e-01
3.013143837451934814e-01 -1.449851989746093750e-01 -3.362751007080078125e-01
-3.718708157539367676e-01 -1.015387549996376038e-01 -2.736365795135498047e-01
-6.348099559545516968e-02 6.836789101362228394e-02 3.018737770617008209e-02
-1.660195738077163696e-01 -4.770417883992195129e-02 2.734536537900567055e-03
5.433144420385360718e-02 8.286998420953750610e-02 -4.969469308853149414e-01
5.511422157287597656e-01 -7.569151930510997772e-03 2.871653530746698380e-03
2.854736447334289551e-01 -1.400108188390731812e-01 -2.070350050926208496e-01
1.960205435752868652e-01 -3.952435031533241272e-02 3.879328444600105286e-02
8.311510086059570312e-01 2.573383972048759460e-02 1.584110558032989502e-01
4.578529391437768936e-03 -1.017067357897758484e-01 -5.757555365562438965e-01
1.690596789121627808e-01 -5.996740609407424927e-02 -4.642134159803390503e-02
-3.902153670787811279e-02 8.639827370643615723e-02 -4.610809683799743652e-01
2.826744616031646729e-01 -1.633453927934169769e-02 -1.850798875093460083e-01
9.187942743301391602e-02 -6.814327836036682129e-02 -1.280005574226379395e-01
-6.987325847148895264e-02 5.950351804494857788e-02 4.062356352806091309e-01
-1.405726671218872070e-01 -2.609223872423171997e-02 -2.072512656450271606e-01
-7.360205799341201782e-02 2.600127272307872772e-02 6.531074047088623047e-01
-2.562995627522468567e-02 3.829678893089294434e-02 8.178063631057739258e-01
-9.035491943359375000e-01 3.163488954305648804e-02 2.737502455711364746e-01
-8.760011196136474609e-02 -2.897207438945770264e-02 -5.527789592742919922e-01
2.947168350219726562e-01 -7.270263880491256714e-02 -1.412836164236068726e-01
-2.695063054561614990e-01 -1.114597618579864502e-01 -3.500005006790161133e-01
-1.609962247312068939e-02 3.046938404440879822e-02 8.702313899993896484e-01
-8.191850781440734863e-02 -4.274079576134681702e-02 3.460461795330047607e-01
2.774718105792999268e-01 -5.754997208714485168e-02 -1.704746186733245850e-01
7.951788604259490967e-02 -3.792244940996170044e-02 -7.997582852840423584e-02
2.604165971279144287e-01 -1.711195521056652069e-02 -1.415076106786727905e-01
-6.030154973268508911e-02 1.464406959712505341e-02 6.882211565971374512e-01
-1.998144835233688354e-01 -4.672421887516975403e-02 -9.608963876962661743e-02
3.031603991985321045e-01 -1.260771006345748901e-01 -2.845801711082458496e-01
-5.910766497254371643e-02 7.197003066539764404e-02 1.976171284914016724e-01
1.546881496906280518e-01 -2.628225460648536682e-02 -1.575839817523956299e-01
-7.767358422279357910e-01 1.645725779235363007e-02 1.621254235506057739e-01
-8.706495165824890137e-03 -1.055943667888641357e-01 8.435609191656112671e-02
8.076590299606323242e-02 1.671649143099784851e-02 7.008761167526245117e-01
7.192351669073104858e-02 6.880457699298858643e-02 -1.167299672961235046e-01
-7.571302354335784912e-02 -3.770709969103336334e-03 -7.633883953094482422e-01
3.524239361286163330e-01 -9.546697139739990234e-02 -2.847449183464050293e-01
-1.447920352220535278e-01 -2.755833044648170471e-02 -2.697758376598358154e-01
-9.639917314052581787e-02 3.372513502836227417e-02 7.993264794349670410e-01
9.906639903783798218e-02 7.026303559541702271e-03 -2.394913733005523682e-01
1.331227179616689682e-02 -1.005087271332740784e-01 -6.117333769798278809e-01
5.683920532464981079e-02 -9.332256019115447998e-02 9.872596710920333862e-02
1.813129484653472900e-01 -3.286983445286750793e-02 -2.723211050033569336e-01
-9.072960913181304932e-02 -6.794670131057500839e-03 -5.832085013389587402e-01
-2.849435806274414062e-02 1.121167372912168503e-02 7.441977858543395996e-01
3.097304105758666992e-01 -1.420269757509231567e-01 -1.705230474472045898e-01
3.849243279546499252e-03 1.772937923669815063e-01 6.400471925735473633e-01
-4.314736127853393555e-01 -8.828853257000446320e-03 5.961343646049499512e-02
-6.119852066040039062e-01 3.874122863635420799e-03 1.608476489782333374e-01
-7.583383936434984207e-03 1.273947861045598984e-02 9.004239439964294434e-01
-2.496885359287261963e-01 -9.860624372959136963e-02 -2.068656235933303833e-01
-4.760520532727241516e-02 -6.681212782859802246e-02 -9.394101053476333618e-02
2.635194361209869385e-01 -3.977546468377113342e-02 -9.330783039331436157e-02
3.620091080665588379e-01 -4.547719284892082214e-02 -2.708476483821868896e-01
4.809759091585874557e-03 3.789107799530029297e-01 9.210274815559387207e-01
-3.558576107025146484e-03 -1.185032650828361511e-01 -2.247293889522552490e-01
-7.870727777481079102e-02 7.908900268375873566e-03 5.358035564422607422e-01
-2.608212456107139587e-02 -9.585742652416229248e-02 2.898524105548858643e-01
5.300103127956390381e-02 8.393370360136032104e-02 -2.829103469848632812e-01
3.195178806781768799e-01 -2.924240380525588989e-02 5.048900377005338669e-03
-2.715594768524169922e-01 -7.279025763273239136e-02 -1.898966133594512939e-01
-9.141558408737182617e-01 3.349950909614562988e-02 2.333151400089263916e-01
2.578239887952804565e-02 7.952948659658432007e-02 -7.463489174842834473e-01
4.598540812730789185e-02 8.721441030502319336e-02 -5.547350645065307617e-01
1.961489170789718628e-01 -2.266803942620754242e-02 -2.054380178451538086e-01
8.783514052629470825e-02 4.648067429661750793e-02 -6.077885031700134277e-01
-7.922294735908508301e-02 -2.830441668629646301e-02 -2.364421486854553223e-01
9.008211642503738403e-02 -4.500889778137207031e-02 2.598904669284820557e-01
6.108233332633972168e-01 1.024288311600685120e-02 4.461831226944923401e-02
-3.566591441631317139e-02 4.288001731038093567e-02 -8.210997581481933594e-01
9.472534991800785065e-03 9.715957939624786377e-02 1.836238242685794830e-02
4.902557283639907837e-02 -7.410244643688201904e-02 -8.005708456039428711e-01
4.238894954323768616e-02 -8.645207434892654419e-02 4.371344149112701416e-01
-5.200523734092712402e-01 -6.268225144594907761e-03 9.866280108690261841e-02
9.828514605760574341e-02 -1.640498451888561249e-02 3.649713099002838135e-01
-7.957505434751510620e-02 -4.937626793980598450e-02 -6.170836091041564941e-01
1.412687897682189941e-01 4.078526794910430908e-02 7.119969725608825684e-01
-2.674849927425384521e-01 -4.281850531697273254e-02 -2.511104047298431396e-01
6.609696149826049805e-02 7.346308976411819458e-02 3.517578542232513428e-02
2.951476275920867920e-01 -1.520307268947362900e-02 -8.148539811372756958e-02
4.727340638637542725e-01 -1.170218270272016525e-02 7.173929363489151001e-02
2.505698613822460175e-02 9.502185136079788208e-02 2.686239778995513916e-01
3.431912958621978760e-01 -4.335485771298408508e-02 -1.875016689300537109e-01
-9.010913223028182983e-02 -1.170775480568408966e-02 2.011494040489196777e-01
-3.497821390628814697e-01 -7.925412058830261230e-02 -2.222360521554946899e-01
-5.069888010621070862e-02 -6.104328110814094543e-02 -5.618836148642003536e-04
-5.275227501988410950e-02 -2.875514328479766846e-02 -8.434346914291381836e-01
3.563886135816574097e-02 -7.229081541299819946e-02 -8.606562018394470215e-01
1.121826842427253723e-01 2.683155797421932220e-02 6.843150854110717773e-01
-9.089596569538116455e-02 -7.914129644632339478e-02 -8.643168024718761444e-03
1.656593196094036102e-02 -5.563979595899581909e-02 6.568585634231567383e-01
-4.182538390159606934e-02 -1.514309737831354141e-02 6.915122866630554199e-01
1.163526251912117004e-01 -3.082292899489402771e-02 -1.370946168899536133e-01
-9.644388407468795776e-02 -6.143661960959434509e-02 -7.555621862411499023e-02
-2.688186801970005035e-02 -9.224367141723632812e-02 4.004984498023986816e-01
-5.725945234298706055e-01 1.643955823965370655e-03 1.350234746932983398e-01
2.654419653117656708e-02 -1.087280660867691040e-01 -4.462303221225738525e-01
-1.394945085048675537e-01 -6.058279052376747131e-02 -2.598470151424407959e-01
-8.377438783645629883e-02 -3.996001556515693665e-02 -1.897081546485424042e-02
-1.076483912765979767e-02 7.049230486154556274e-02 6.413727402687072754e-01
-8.131409436464309692e-02 -6.779436767101287842e-02 -1.153565719723701477e-01
9.462760388851165771e-02 2.970030158758163452e-02 -4.412559270858764648e-01
1.954979822039604187e-02 8.754926174879074097e-02 5.972421169281005859e-01
1.690233796834945679e-01 -5.617199465632438660e-02 -2.126014679670333862e-01
6.146720144897699356e-03 1.906093209981918335e-01 8.362907767295837402e-01
5.572678893804550171e-02 -6.946211308240890503e-02 -1.760769784450531006e-01
2.091492265462875366e-01 5.135921016335487366e-02 7.702434062957763672e-01
9.895265102386474609e-02 -1.180764008313417435e-02 -3.522576764225959778e-02
2.965714596211910248e-02 -1.065583899617195129e-01 7.886181771755218506e-02
2.748813331127166748e-01 -7.041302323341369629e-02 -2.952716648578643799e-01
5.336724221706390381e-02 2.255089953541755676e-02 -8.343152403831481934e-01
-3.617554530501365662e-02 -8.451661467552185059e-02 -7.617775797843933105e-01
-6.821449398994445801e-01 6.799633614718914032e-03 9.848152101039886475e-02
3.508279621601104736e-01 -1.163224130868911743e-01 -2.125555276870727539e-01
-9.131884574890136719e-02 -2.129280939698219299e-03 -3.279453516006469727e-01
9.315975755453109741e-02 3.338818997144699097e-02 -3.070306181907653809e-01
-7.224258035421371460e-02 -1.152535453438758850e-01 -1.155241206288337708e-01
-1.091960296034812927e-01 -3.976815938949584961e-02 -4.253505170345306396e-02
-2.056427150964736938e-01 -2.711407467722892761e-02 -3.999614343047142029e-02
2.537569999694824219e-01 -1.034253239631652832e-01 -2.578735649585723877e-01
-7.856003940105438232e-03 9.075441211462020874e-02 6.973748207092285156e-01
9.612554311752319336e-02 2.593159675598144531e-02 -2.698811292648315430e-01
-1.071048714220523834e-02 9.577481448650360107e-02 -5.744390934705734253e-02
4.104017615318298340e-01 -2.181229740381240845e-02 -6.792148202657699585e-02
-7.945585250854492188e-02 -7.975352555513381958e-02 3.441869467496871948e-02
-2.590508460998535156e-01 -4.001262411475181580e-02 -1.346547901630401611e-01
-6.181835383176803589e-02 6.956668943166732788e-02 4.398050904273986816e-01
1.673886030912399292e-01 -1.268029063940048218e-01 -2.724610455334186554e-02
9.903424978256225586e-02 7.281319238245487213e-03 3.164487183094024658e-01
5.005104839801788330e-02 -5.725956335663795471e-02 5.783194899559020996e-01
-8.310870267450809479e-03 9.610398113727569580e-02 -5.431703329086303711e-01
7.281061410903930664e-01 1.410251948982477188e-02 8.773085474967956543e-02
3.299896046519279480e-02 9.281866252422332764e-02 2.172987014055252075e-01
2.551579475402832031e-01 -8.975129574537277222e-02 -2.254419475793838501e-01
-1.689326167106628418e-01 -9.144897758960723877e-02 6.180057767778635025e-03
7.972820848226547241e-02 -6.220868602395057678e-02 -5.291427373886108398e-01
-2.307285964488983154e-01 -4.245749115943908691e-02 -8.289074897766113281e-02
8.680234849452972412e-02 4.872398078441619873e-02 -1.868947744369506836e-01
-8.934193104505538940e-02 -1.804808713495731354e-02 -6.324153542518615723e-01
-2.040718793869018555e-01 -3.590228036046028137e-02 3.034334070980548859e-02
7.981682568788528442e-02 -4.853421077132225037e-02 -4.816443193703889847e-03
5.307382717728614807e-02 -3.487510606646537781e-03 -8.617575168609619141e-01
-6.302502006292343140e-02 -6.095822528004646301e-02 -7.436455488204956055e-01
8.978996425867080688e-02 -4.574316740036010742e-02 1.825747191905975342e-01
-4.384411126375198364e-02 8.417540788650512695e-02 -3.711494803428649902e-01
-2.929396554827690125e-02 7.439775019884109497e-02 -7.456231117248535156e-01
3.472400009632110596e-01 -7.819136977195739746e-02 -1.569397300481796265e-01
-6.568668782711029053e-02 5.513609945774078369e-02 -7.004804611206054688e-01
9.597110748291015625e-02 2.632015012204647064e-02 -4.757334887981414795e-01
2.223168499767780304e-02 -1.138989105820655823e-01 1.274645514786243439e-02
5.171722769737243652e-01 5.269528264761902392e-05 -4.999533668160438538e-02
-1.562581956386566162e-01 -1.300728768110275269e-01 -1.268882397562265396e-02
-5.902748107910156250e-01 9.363474324345588684e-03 4.469820111989974976e-02
-6.385985761880874634e-02 -7.191889733076095581e-02 -2.639905214309692383e-01
3.109112195670604706e-02 5.418483540415763855e-02 7.725233435630798340e-01
-3.467663526535034180e-01 -4.907206073403358459e-02 -3.269664347171783447e-01
6.134075298905372620e-02 -9.078491479158401489e-02 -4.466537535190582275e-01
-2.647241950035095215e-01 -7.129943370819091797e-02 -1.561956852674484253e-01
-9.120928496122360229e-02 -2.996078226715326309e-03 -5.226517319679260254e-01
-2.021589688956737518e-02 -1.143846586346626282e-01 -3.743062913417816162e-02
-6.617329716682434082e-01 8.135708048939704895e-03 1.770945936441421509e-01
9.537927061319351196e-02 2.640650980174541473e-02 -6.345590949058532715e-01
-5.478403717279434204e-02 -6.298825889825820923e-02 4.979137778282165527e-01
-2.794583141803741455e-01 5.935785174369812012e-02 8.611312508583068848e-01
9.312605857849121094e-02 9.586315602064132690e-03 -7.080900073051452637e-01
8.613888919353485107e-02 3.364348411560058594e-02 5.085079669952392578e-01
-3.742111623287200928e-01 -2.380394749343395233e-02 -4.153355583548545837e-02
-5.654024481773376465e-01 -4.126511979848146439e-03 7.155013829469680786e-02
-1.826692168833687901e-04 9.721893072128295898e-02 -4.921616911888122559e-01
-7.361516356468200684e-02 5.460451170802116394e-02 1.018777489662170410e-01
9.333145618438720703e-02 3.295616805553436279e-02 -5.355849266052246094e-01
2.914384603500366211e-01 6.352030485868453979e-02 9.096944928169250488e-01
1.095120608806610107e-01 -8.116752654314041138e-02 -3.236912786960601807e-01
-2.363063208758831024e-02 -1.172807291150093079e-01 -1.643855124711990356e-01
2.851904034614562988e-01 -3.567479923367500305e-02 -2.668038308620452881e-01
-2.925625145435333252e-01 -1.507435292005538940e-01 -3.140256702899932861e-01
-8.536395430564880371e-02 3.072142787277698517e-02 7.904301583766937256e-02
7.202300429344177246e-01 1.106487400829792023e-02 1.651413887739181519e-01
-4.687225073575973511e-02 -3.183823823928833008e-02 -3.186413645744323730e-01
7.265154272317886353e-02 5.581529065966606140e-02 -7.084602117538452148e-01
1.423614919185638428e-01 -1.420844197273254395e-01 3.053259849548339844e-02
-3.485477715730667114e-02 8.819621801376342773e-02 -9.031250327825546265e-02
-8.654499650001525879e-01 2.830300293862819672e-02 2.240284383296966553e-01
-5.113601312041282654e-02 5.277147516608238220e-02 6.332930326461791992e-01
-9.128893166780471802e-02 -2.365995896980166435e-03 -1.722518503665924072e-01
4.377755522727966309e-01 -1.772406511008739471e-02 1.675292500294744968e-03
-9.851136244833469391e-03 -1.526647806167602539e-01 -7.377086877822875977e-01
7.642380148172378540e-02 -3.149680793285369873e-02 -1.509477645158767700e-01
-2.861918210983276367e-01 -3.213964402675628662e-02 -2.922583818435668945e-01
-6.732343882322311401e-02 1.662882603704929352e-02 6.111769080162048340e-01
-3.289142549037933350e-01 -2.907179109752178192e-02 -4.165659844875335693e-02
-7.731558382511138916e-02 -7.132306694984436035e-02 -2.228608131408691406e-01
9.253700822591781616e-02 -9.946466982364654541e-02 -3.452664017677307129e-01
-1.104758232831954956e-01 -5.417013913393020630e-02 4.121359065175056458e-02
6.611339747905731201e-02 -7.732613384723663330e-02 2.349449098110198975e-01
-2.638535499572753906e-01 -3.059065155684947968e-02 4.501244798302650452e-02
-5.184676125645637512e-02 -9.748052805662155151e-02 8.326440304517745972e-02
1.663875281810760498e-01 4.661863669753074646e-02 7.909937500953674316e-01
1.072504464536905289e-02 -1.008636578917503357e-01 -5.142609477043151855e-01
8.125670999288558960e-02 2.021610178053379059e-02 5.767720937728881836e-01
-5.541092753410339355e-01 5.057557951658964157e-03 -1.789219118654727936e-02
3.464600443840026855e-02 9.222818538546562195e-03 6.881471276283264160e-01
1.330892294645309448e-01 -4.637797549366950989e-02 1.583662629127502441e-02
-3.317525684833526611e-01 -5.275336652994155884e-02 -2.418997138738632202e-01
-3.257390856742858887e-02 2.778505347669124603e-02 6.023926138877868652e-01
9.893780201673507690e-02 -1.192808710038661957e-02 1.859435886144638062e-01
-2.235184051096439362e-02 9.359117597341537476e-02 -1.521794497966766357e-01
-4.039836302399635315e-02 -8.967962116003036499e-02 1.419285833835601807e-01
3.905299901962280273e-01 -2.163941971957683563e-02 -3.455963218584656715e-03
-8.785013854503631592e-02 -1.085847988724708557e-01 -1.604242026805877686e-01
-4.687225073575973511e-02 -5.428367480635643005e-02 -6.209407746791839600e-02
9.326513856649398804e-02 -3.699970617890357971e-02 -4.203881919384002686e-01
-1.732343137264251709e-01 4.931201040744781494e-02 7.731865048408508301e-01
1.556075513362884521e-01 -5.784853920340538025e-02 -2.811881303787231445e-01
-8.618895709514617920e-02 2.864705584943294525e-02 -7.505275309085845947e-02
1.616775244474411011e-02 9.509238600730895996e-02 4.956935942173004150e-01
-2.069596946239471436e-01 -4.463558271527290344e-02 -2.448724210262298584e-01
-8.879922330379486084e-02 1.820128969848155975e-02 1.480925679206848145e-01
1.339540779590606689e-01 2.786582335829734802e-02 7.407641410827636719e-01
2.402859479188919067e-01 -2.750620990991592407e-02 -2.334734350442886353e-01
-4.258876740932464600e-01 -1.918201148509979248e-02 -4.353674873709678650e-02
2.225637733936309814e-01 -4.648213461041450500e-02 -1.857472658157348633e-01
-4.899346968159079552e-04 3.027284145355224609e-01 7.857997417449951172e-01
